ply
format ascii 1.0
element vertex 682
property double x
property double y
property double z
property uchar red
property uchar green
property uchar blue
end_header
-0.5133590904222317 0.2274471837285161 1.8889602221391142 221 227 183
-0.3152102727923207 -0.3577962214742602 1.3856027449572590 164 192 213
-0.4217802654194632 0.0793489420961446 1.7659728581680874 233 241 200
-0.6651481156137293 0.1194750406334320 1.7200688405826599 76 105 149
-0.4245891202976682 0.0948893448783153 1.7675612198508095 129 138 119
-0.4195135002463483 0.0854763978783520 1.7675648698308528 127 142 111
-0.3538528794006968 0.3096838699121419 1.8307977456962754 111 131 129
-0.3316025075879862 -0.3308016866380908 1.3914612714743890 181 200 206
-0.3176151853734956 -0.3254510360191853 1.4040009992161808 202 211 210
-0.6744145631758470 0.1427650227999813 1.8506044007655313 117 133 123
-0.5891524129532626 0.2924268785566654 1.9721888867100903 138 150 138
-0.5642749786570460 0.1774424714544915 1.8745187031668458 160 177 193
-0.5239883038311293 0.6532950673404954 2.1829190912036762 102 132 120
-0.5140247343364125 0.1318489243755959 1.7392004199605391 219 227 190
-0.5642749786570460 0.1774424714544915 1.8745187031668458 160 177 193
-0.3352690299856402 -0.3208049841617245 1.4027380215433820 188 215 208
-0.6802424284749387 0.1200126996247969 1.7355907184299160 95 109 148
-0.6065208988329338 0.3005989314037579 1.9749640965845887 95 119 105
-0.4846910090470993 0.3977888223796623 1.9737976924175205 109 137 114
-0.6023540686122582 0.3954663687834468 1.9985421868942148 163 175 173
-0.4065580004061960 0.1439073301335356 1.7679210307749473 121 129 114
-0.3467735223176713 -0.4292625754440622 1.2573504141498220 93 116 170
-0.6000271146446193 0.4001476928010737 1.9979089923477922 215 227 203
-0.3629905968662071 -0.3189660711350708 1.4072315671149795 227 230 219
-0.3093813286765073 -0.3919143419237773 1.3790733378455737 85 117 158
-0.4163476020453534 0.4146369269266728 1.9610860364249370 208 226 184
-0.4379338045549648 0.1259791205881191 1.7881080365954984 226 232 186
-0.3686302168494312 -0.2904921491662496 1.4291252708499469 237 235 210
-0.6848096820079036 0.3342313354259966 2.0521604121962733 155 168 158
-0.3266027368518158 0.0937301699649401 1.5066042854840269 84 126 125
-0.3433677289271910 -0.3952080779893761 1.3606959257458302 244 255 255
-0.4926762502329984 0.3914353881665980 1.9848582494854361 149 168 140
-0.7136786041707459 0.1615105500767853 1.8640429845703754 191 203 191
-0.4504622313763698 -0.0261806313126737 1.6755159045961705 180 174 126
-0.4377760017338517 0.1031219093909123 1.7701774753582880 223 227 194
-0.4994727189076478 0.3322979720820838 1.8878872902473243 231 233 184
-0.4936864385158059 0.5408096405944343 2.0757542926786088 182 208 179
-0.4738969132142108 0.3354419691700279 1.8862643943144708 96 126 116
-0.6412369626586877 0.2263747523481003 1.9775953120919398 100 127 110
-0.7135943757817013 0.1649478083592187 1.8667354062157442 85 116 147
-0.3624484656240125 -0.2752036106222112 1.4236234700062755 170 181 173
-0.3051504796422455 -0.3777894382764898 1.3851328766634821 100 124 162
-0.3768726577534547 -0.0381393694505221 1.6891091051260814 145 151 117
-0.6010082840172137 0.5339356962465232 2.1217509967425277 122 155 138
-0.5335718402787916 0.1827926581112437 1.7559307241239785 181 189 152
-0.4297970312981989 0.3170974633572099 1.9460644229360393 187 202 173
-0.3180131630645519 -0.0262272090660636 1.4792094489444867 224 230 196
-0.5742816751271715 0.3278222483582765 1.9665297909531707 140 149 132
-0.4203522152842867 -0.0253624758138618 1.7007012237706929 134 135 103
-0.7052661548273782 0.1956091416972028 1.8993818576880337 171 186 167
-0.4293589280784527 0.6304057021995157 2.0636493236126694 177 198 183
-0.6131172942477603 0.1767445826081856 1.7201851727796253 229 229 191
-0.5204630129763876 0.5827656735444595 2.0945247377187255 112 133 114
-0.4498932205441984 0.4115598662120355 1.9957043263196590 200 206 170
-0.6764984801368944 0.0895252543000904 1.8113202546639673 73 92 135
-0.3412106293029182 0.1567295435208003 1.7453934661079415 102 137 117
-0.3228751414994070 -0.3427940358686429 1.3803385040650373 81 111 147
-0.5162008516123018 0.2658163517061005 1.8993732804007917 204 210 164
-0.5925076425661563 0.3264281676489352 1.9758551608050428 132 154 133
-0.3343832050293142 0.7021608256097381 1.8662382123675989 88 130 142
-0.3377650945803369 0.1557835880069298 1.7486072509281683 217 218 187
-0.7365997249692824 0.5472577456697586 2.1802213369199386 100 119 113
-0.4726411369251318 0.2767625251558912 1.8240142899611729 94 115 118
-0.5716779465241403 0.4456796223829655 2.0099536091253110 89 114 121
-0.3470390609775562 -0.3273802506172470 1.3915104186974763 191 212 213
-0.3914729316471661 -0.3293061473641668 1.3384432945162512 103 130 157
-0.6281476752307750 0.3675385841118096 2.0620570348567822 112 132 120
-0.7814699266757240 0.3299786100610068 1.9925249902447288 126 155 153
-0.3364433838808234 0.1777053649300542 1.7730974368689791 208 217 186
-0.3709630823615730 0.0069559200809095 1.7215181519280989 226 232 194
-0.3910975259754775 -0.3228676231434265 1.3397719123662464 170 198 219
-0.4353063081069986 0.1219345082338423 1.7848983085048249 178 178 154
-0.4915769438157137 0.2430600171040266 1.8559358664257950 188 202 177
-0.4307681651134175 -0.2261554803681353 1.4561197564827915 108 112 149
-0.4760084238497697 0.6382536325548644 2.1176182371994701 112 153 139
-0.3454115734143793 -0.3094186375807372 1.3943617905573988 120 153 170
-0.4412975976912846 -0.2150013693069385 1.4650370606903595 116 125 158
-0.6954930033070043 0.1084152712329914 1.8169614144010042 89 112 146
-0.3702809143593401 0.0294654025561950 1.7195167735137571 117 117 115
-0.4634278672662395 0.1513851721625818 1.8028140045287964 221 226 194
-0.4419935366348950 0.1335729426020393 1.7898624570801027 138 153 134
-0.5109112380664865 0.6191641810928182 2.1423247077621737 104 123 121
-0.5357432754465803 0.4607104139597018 2.0176952540477995 103 144 138
-0.5881695237007133 0.2216850605543529 1.7139810611668556 231 229 180
-0.3712853431270924 -0.3079189999727339 1.4133709754975159 245 255 247
-0.4237809482083550 -0.1981442179793498 1.4874831020487145 152 135 119
-0.3713539671650289 -0.3079078053405715 1.4131116353321238 245 255 247
-0.4490144892918383 0.1252864873012176 1.7972307630856845 125 148 128
-0.3531205468448297 0.4997518394208951 1.9787201743195559 215 223 166
-0.3586470931640333 -0.3016332740140328 1.4236842003895596 104 123 129
-0.4459332364653720 -0.1855656159684174 1.4812065764212172 254 246 197
-0.5068923946776269 0.0551404428852163 1.7078655970813976 122 120 95
-0.6656697003486048 0.3098879731601875 2.0343599187504138 178 191 173
-0.5451591122644335 0.5160291066891145 2.1829139023752395 122 145 127
-0.3447218825450695 0.3202568257691322 1.8078015567378056 195 213 187
-0.6756770721985539 0.1809363453814467 1.9028811800936376 183 192 163
-0.5451591122644335 0.5160291066891145 2.1829139023752395 122 145 127
-0.6426148513555493 0.1166896475608804 1.8161593547940988 233 233 181
-0.5880151154465875 0.2439425102821892 1.9541334345714378 245 253 238
-0.4340582179187161 0.7102913773195122 2.1213085681998063 91 125 111
-0.3039311576583942 -0.2417461291153725 1.3398424660089776 92 121 163
-0.4954581468806508 0.4473817193589071 2.0174163806899092 177 200 172
-0.5634457291677155 0.1810916055516084 1.8924622829509274 170 197 190
-0.6661457267398397 0.1274480611867349 1.8448106811957938 210 217 186
-0.5814730127593001 0.1882715863889453 1.8907588042205303 244 250 224
-0.5305994274500789 0.1882651499251195 1.7573384596333144 224 229 188
-0.5688842293940203 0.1410396338901063 1.6341245623578862 212 217 187
-0.5936350779082509 0.4473399426055337 2.0743758285529430 214 226 190
-0.5975477191150989 0.2269535848531648 1.9117233180252935 237 255 255
-0.6064913833684198 0.3323167598484433 1.9958396629889159 216 219 176
-0.6844570242195472 0.1403026192250338 1.8474956929021003 182 200 178
-0.3431757621666447 0.3200594762786640 1.7971591329679564 205 216 202
-0.6240555849683694 0.4480996035767497 2.0971787744260078 170 192 169
-0.6324149376921530 0.1652639300790763 1.9350466648757558 219 227 186
-0.4297364749536002 0.3636687814065806 1.9535878510508558 201 212 180
-0.7002328576831169 0.1135622577926308 1.8230322982322822 198 212 186
-0.3019187226559166 -0.3906543831771939 1.3804064032762440 123 151 188
-0.5539853563655852 0.2627309264806352 1.8935971599580774 224 224 174
-0.4403995014254786 0.0778544715377080 1.7525041356020625 118 116 103
-0.3348942940806486 0.1301654448826638 1.7049749982971572 246 247 207
-0.3386011664698482 0.1305295480519351 1.7039469981993125 117 128 114
-0.4501097607803155 0.1772009503042090 1.8081707067728305 123 145 132
-0.5999950713436684 0.2292252103235852 1.7429907762275285 99 106 112
-0.4517115554608445 -0.0139471007730384 1.6787906108510009 155 152 107
-0.4681724231221905 0.1592219987100176 1.8015161694481452 140 149 132
-0.6396289513051361 0.3322925697493724 2.0396112263567980 121 141 130
-0.4121509614431285 -0.2422580787960439 1.4516947627470538 250 222 182
-0.6161299379504780 0.4493488407392338 2.0658414392532469 126 153 136
-0.4067372272425482 -0.2291100513332350 1.4695977239899163 255 244 199
-0.4958828992950126 0.1838024822859463 1.8103418557400286 223 231 190
-0.3934714016981895 -0.2211581358386500 1.4668640907865746 254 239 170
-0.3876922938284461 0.3452851662268027 1.8914593017166117 221 228 186
-0.3509801957881356 0.2152704993337256 1.7856273538384566 138 149 133
-0.3867711633402475 0.1758852056668331 1.7663624688048769 194 208 173
-0.7949003602002790 0.3747568412079916 2.0800446186074066 139 155 142
-0.3678492823675654 -0.3540647388794759 1.3639514483273980 190 223 232
-0.4117186095854636 -0.2101633943258105 1.4768314718205282 255 248 176
-0.7882142454398582 0.3802435825686450 2.0804930061093234 163 185 173
-0.3313435187875054 -0.2178276917433437 1.5680918871838798 255 248 191
-0.4619634457897840 0.4093336540655355 1.9947176483737215 174 192 170
-0.3930742287110015 0.2451271864259161 1.9031073020192588 210 214 187
-0.3683168191397273 0.1793527131269703 1.6302375289474831 184 194 170
-0.4085445305851208 -0.1806132946777627 1.4753225029690726 244 230 183
-0.7623549598774519 0.3206851724952994 1.9868829845398077 45 84 125
-0.5898559929132744 0.4377484899940292 2.0149524734510349 194 205 175
-0.4081262249392351 0.1796651846812319 1.7822416918979305 97 116 114
-0.5727521687831859 0.2983329729970262 1.9624856043737451 203 211 170
-0.6050479875428167 0.2902102572518217 1.9727589050199814 206 210 173
-0.4816834732956721 0.3229677145923688 1.8722441770406308 85 125 125
-0.7321753922073817 0.2598377908345233 1.9513989002594196 132 152 141
-0.3843869511207946 0.5369123456562616 2.0299056053376368 122 159 141
-0.6845159585730439 0.1305187252371230 1.8495921282595760 102 120 122
-0.6340085900114940 0.3151330098846941 1.9718643104313884 229 255 241
-0.4053977713927539 0.5602641100772179 2.0423803828271514 184 209 179
-0.7233306392979701 0.2772668053289077 1.9555074064158395 74 106 105
-0.3425667433145187 -0.1249907829250134 1.6329269248323370 143 152 121
-0.5021203017790026 0.4646056404214726 2.0168915735996844 129 154 133
-0.3425049278529462 -0.1250991423196706 1.6329565919303826 143 152 121
-0.3599624183747475 -0.2812518604186190 1.4261653913314889 252 255 238
-0.4558855495079261 0.5695971251480345 2.0608026647900766 159 186 171
-0.6070376184333452 0.3285776068670068 1.9870436361821504 146 162 151
-0.5752798915398450 0.3641411497171957 1.9639443777563861 176 194 170
-0.3443391984081673 0.2266377520863680 1.7866510180744433 207 220 194
-0.5354370286139494 0.4818605076502246 2.1190462027794643 108 139 134
-0.4571289506160663 0.1962664912082731 1.8172582998064899 177 188 174
-0.7994200308734812 0.3604191706392847 2.0224903415250135 144 169 163
-0.4975946244297387 0.2043182311411884 1.8181483821235260 195 208 178
-0.6493090959962808 0.3125101913911775 2.0202540601347012 149 166 150
-0.6241409777747720 0.1310986039443274 1.8893208155736350 249 255 223
-0.4466084265671955 0.6271415181744014 2.0768436602831328 189 220 176
-0.4131563934021875 0.0813553465975937 1.7531222811226534 223 230 186
-0.6129364032478930 0.1305000399423760 1.9008311662533943 229 242 198
-0.4952501287845553 0.6296910396409543 2.1258501797737965 178 191 165
-0.5875569441136802 0.3832361698653211 1.9881275850557367 124 150 123
-0.3688894189555825 0.2588105895285379 1.8035468327277073 149 161 149
-0.3448601908380410 0.2945798501106028 1.8059578131236751 144 171 156
-0.4017925113396163 0.1333857634170105 1.7684142445856570 209 220 177
-0.5255619451764411 0.1876596307386536 1.7576155155565096 195 203 182
-0.7586809691189798 0.3046692106426444 1.9810708614127737 136 162 153
-0.5430385863413928 0.1899039040983531 1.7551349627894348 220 228 181
-0.3235848011599126 -0.3298757150576093 1.3925823963668047 70 107 149
-0.4266240789181292 0.0621491904507491 1.7607923631261870 125 126 112
-0.4045616411572069 -0.3417353498121624 1.3380085915152022 90 127 180
-0.6604883214296960 0.3645545192604681 2.0580743768066054 75 86 106
-0.3525760489316067 -0.0853146049615107 1.6674500618443788 226 220 186
-0.4605393323745855 0.4177640759417118 1.9955297670940937 126 152 141
-0.4082759832070910 0.1623232886037684 1.7877767802320446 108 121 114
-0.3647597272202380 -0.2605756069173644 1.4256680033507469 255 255 246
-0.4213642895134717 -0.2355566256987719 1.4573317889158726 88 111 153
-0.6116265059506318 0.4726982662708044 2.1083616322675813 151 168 158
-0.3691630054946067 -0.0719524585941859 1.6757837379743747 152 146 122
-0.3424030009994464 0.1808108015588137 1.7709360299890513 211 221 186
-0.3722829151197831 0.1858492428347417 1.7687812947104402 94 112 122
-0.4526557023425948 0.1581385040021549 1.8037817766616318 203 216 186
-0.3384927569490307 0.0307617935761813 1.5245058931379467 87 105 127
-0.4176896936847747 -0.1912490398467565 1.4829774407009979 255 240 163
-0.4472804388365329 -0.1908013991490652 1.4815368784111196 111 116 158
-0.3626850468715545 -0.0635123538595899 1.6819053179598336 197 204 171
-0.8043701680357923 0.5060708105097333 2.1467515743095040 134 161 152
-0.5663358918133929 0.3959048332438452 1.9765785178347164 212 224 176
-0.3199050811286733 0.0873710253647897 1.4961702343563930 102 128 141
-0.4659502592137955 0.2309555678762620 1.8178398792152528 153 165 151
-0.6751592819564951 0.1513481754269475 1.8538479516449955 210 217 186
-0.3590123256737509 -0.0539410672774048 1.6773677456199985 224 225 185
-0.3416020369053166 0.2445457607555291 1.7920973666109401 112 138 139
-0.4027102240408917 -0.2699848037861652 1.4365319097582219 255 241 192
-0.4089820670402277 0.0896457912446949 1.7548363739901098 233 239 191
-0.5665839681037484 0.1757265250568496 1.8867594975180579 255 255 255
-0.4364624312917254 0.0824056462380460 1.7619806578098145 239 232 180
-0.3677759181287936 -0.2568774853264065 1.4363210024234518 229 220 191
-0.4232781546654265 -0.0284204190650338 1.6954041925134875 255 246 179
-0.2971444742927414 0.4333853115116353 1.7227420713249213 176 202 189
-0.3613276513454556 0.2220066903269557 1.7890336286560637 200 216 190
-0.5150889135335097 0.4146126239775845 1.9758810895242962 199 221 183
-0.7694120715869989 0.5181941901996807 2.1626296825962261 67 93 94
-0.3684403495432754 0.0092687054149637 1.7226157117585890 244 250 202
-0.3752792571852342 0.0161933153326571 1.7301902210791043 222 232 197
-0.6011974281096604 0.1641407692551509 1.9042253596335206 218 226 175
-0.5764369162107666 0.2877591257421443 1.8948898629914477 244 255 251
-0.4666141098831570 0.5990536339611341 2.0738245265131598 175 203 181
-0.5802599851526140 0.1854527439301802 1.8878044150435624 171 179 164
-0.4668433738514844 0.6003960592621200 2.0736598091618044 175 203 181
-0.5554172363086011 0.2792247765945545 1.8995102860445907 224 227 172
-0.8023479057606173 0.3935686277078946 2.0413527146669574 53 91 140
-0.2936178471799817 0.4041519288991204 1.7217547508948379 174 189 192
-0.4039674558637955 0.1220734124628924 1.7552466645728346 122 127 123
-0.3421783101384726 0.4046512576001731 1.2964844383594707 78 115 167
-0.3854345930813567 0.2510680288130602 1.8758937408524852 171 183 163
-0.5039195123414005 0.6092726850448194 2.1320938909739993 153 182 160
-0.5116514501101093 0.2550141668932831 1.8916986337096551 202 212 175
-0.4904572205042430 0.3252483770838127 1.8793765908710951 222 224 175
-0.6158057298485233 0.1778249365589378 1.9264972683760249 198 205 164
-0.3347434375478689 0.1553709475626908 1.7463650362350298 229 230 186
-0.4573071215169947 0.0698642550999194 1.7299686352661985 233 236 191
-0.4889456932859472 0.6352846203676163 2.1241230076975297 111 138 131
-0.4130917217226434 0.2072188910693678 1.8841111907814190 214 223 192
-0.5289662161950186 0.5804642340747774 2.1907900535891422 151 182 166
-0.5187390495361367 0.1662678778038890 1.7382692155085395 206 210 175
-0.3869504409399851 0.2844640062096234 1.8996725519830278 194 202 178
-0.4922486532631735 0.2602381059941124 1.8594216381051512 159 175 165
-0.3611688410100145 0.3153095444360067 1.8428578918015341 189 206 174
-0.6355346154234406 0.2535048059389350 1.9625699633170184 123 137 114
-0.7194387114074173 0.5951790553864640 2.2238386475446279 86 128 126
-0.3434218101402290 0.4706900233203529 1.3487717873164002 166 213 223
-0.3305869778568173 0.1385133605774884 1.5231399448848439 81 112 159
-0.6381793055818853 0.2449721414825957 1.9847144267917380 97 114 104
-0.7285990470807712 0.3056840445402094 1.9689037545024159 182 195 175
-0.5718710539864965 0.2732704289979447 1.9592408431449697 163 169 125
-0.3944062219018203 0.2345477538652699 1.8988347920623294 206 219 191
-0.6713610032055097 0.3698112851829261 2.0693337158489484 155 175 138
-0.3994734521898062 -0.1090805145298944 1.6332578470664498 249 253 194
-0.6613712820435805 0.1057614189561463 1.8323492644395505 135 136 122
-0.3434024508633097 -0.1079791611606444 1.6582259028347124 253 255 206
-0.3993250920110408 0.1094136393477275 1.7557649768466073 226 233 192
-0.6186981818445449 0.4087356021031739 2.0434565406873375 104 130 121
-0.6059849391109136 0.3636788232986954 2.0137252017352369 211 218 177
-0.3764801498998948 -0.2543719380582841 1.4447744235694409 145 149 148
-0.5067603793916849 0.1366619801665532 1.7403858792920648 196 208 172
-0.6203942019206583 0.4093352404622611 2.0589406624582529 113 134 119
-0.6203942019206583 0.4093352404622611 2.0589406624582529 113 134 119
-0.3764240203526054 0.4807779783148028 1.9965440993540178 132 157 153
-0.3760893443837421 0.4794505173863059 1.9971696460913584 132 157 153
-0.3970594798865610 -0.2150886270323156 1.4663141320717146 161 149 151
-0.2900083722140152 0.8974264389149967 1.8401280241906757 227 255 255
-0.3524512532019894 0.4105724808675447 1.3059404866175304 185 229 238
-0.4843807509864272 0.4342193607823698 2.0118381118173474 131 155 142
-0.4944320153821412 0.4538457235732763 2.0215371733394574 146 174 152
-0.5125392151282941 0.4612175764005203 2.0223910929735820 196 212 183
-0.3621807906057600 -0.2108146617861460 1.5658722121349444 245 251 213
-0.5196215276757835 0.3296868020188065 1.9154518039958246 109 131 119
-0.3980759094860547 0.4361387039745444 2.0137080310632247 95 139 138
-0.7740171134503435 0.4675156723849245 2.1163263104519054 129 155 144
-0.6501510840837079 0.2495018366973850 1.9982439209141130 162 181 162
-0.4490042033054387 -0.1378265277283845 1.5019720468279183 242 246 221
-0.3495525066611465 -0.3827860858003168 1.3674395134192403 255 255 255
-0.7710315008015614 0.4755681267054500 2.1067310051750887 60 101 107
-0.4489309552829555 0.1635045121656968 1.8105836607114381 225 225 187
-0.4468419933310291 0.1826381474173482 1.8101508193815590 217 224 190
-0.4198439919768470 0.0651751489713671 1.7608301376512046 237 234 191
-0.4519109854107457 -0.0183565444977609 1.6743626738792470 255 248 179
-0.6198742731258270 0.4514317247384355 2.0994704125490062 150 177 160
-0.4520018492586373 0.6446556310748925 2.0962811365550995 108 143 145
-0.5973580143706043 0.2902280977735370 1.9686678135061859 207 209 172
-0.7641098344006421 0.4355989764071952 2.0908826075851943 85 114 122
-0.5370922723984284 0.4675746809638129 2.0260597682848194 178 202 170
-0.7932465448295942 0.4213706712985301 2.1154896505559284 110 146 144
-0.7642147986633189 0.6087804845151304 2.2134008246083914 86 106 113
-0.3565168627466829 -0.1380493981152607 1.5972397519615384 167 170 139
-0.3913919038096758 -0.2300371122272032 1.4620975219059547 255 251 193
-0.4828017861234060 0.4656406900005904 2.0165732154830946 208 221 175
-0.4128872223985064 0.4374033603596365 2.0218050576431357 158 185 168
-0.5066347354872870 0.1498572174011435 1.7416948783372266 82 107 114
-0.3614859566700248 0.0249953208525194 1.7163621479673306 91 111 122
-0.4264888579050994 0.2712239970361560 1.9089245293943060 234 234 184
-0.4354858732052626 0.4886038345873313 2.0259694862262534 114 141 136
-0.6102336807508414 0.4008381429087164 2.0223943071288462 120 140 139
-0.5067210683816277 0.4607530262548875 2.0975474493033532 190 209 179
-0.5363392730133018 0.4276635491044263 2.0029515941333056 123 156 145
-0.2941690380226346 0.3909619756814285 1.7060392967293339 170 190 189
-0.4763012606194067 0.2209372554767620 1.8340827042941326 222 227 187
-0.3399995445851784 0.6013686415350682 2.0258506742155657 176 201 172
-0.3744425171394512 0.4642551006919844 1.9507160617699861 204 221 176
-0.3586374406093291 0.1880592807585326 1.7854379819171855 222 230 191
-0.5845971791145523 0.5387553295817865 2.1168003497651005 205 210 169
-0.5240381247234424 0.5712789789595877 2.1728046336243545 94 122 126
-0.3877317334673371 0.1988384401549042 1.7881351558137806 208 222 186
-0.6245198536366359 0.2083892978875938 1.9343258494523152 113 123 114
-0.4520807186738782 0.0793561029010936 1.7573180095025025 245 247 197
-0.3939347099353017 0.1786949345319344 1.8682593377810177 202 215 187
-0.4887649107133462 0.3421511497164519 1.8911057496027506 128 159 154
-0.4887649107133462 0.3421511497164519 1.8911057496027506 128 159 154
-0.5002489331741626 0.3136781638336639 1.8878236511518502 229 227 170
-0.3141012825090524 -0.4083784934800662 1.3506393629947560 139 172 207
-0.3195532006563421 -0.4084031027555873 1.3529582711304071 254 254 254
-0.5451778811695465 0.2011359344170842 1.8714984881095726 180 180 144
-0.3203609568973214 -0.1980534945204696 1.5554291872821846 250 255 255
-0.6284587079090919 0.1648751266073648 1.9325813874691928 141 140 119
-0.6199518748418154 0.3279405679133054 1.9962366905894295 214 223 204
-0.6284587079090919 0.1648751266073648 1.9325813874691928 141 140 119
-0.6287449204636961 0.3308827232400704 1.9978371643546000 205 216 186
-0.7029363441278427 0.1505201140396125 1.8477691123282827 66 101 139
-0.5112741829432302 0.5263298199349032 2.0612248784694818 113 142 138
-0.6109744669783154 0.4714354559508876 2.0931289813625531 159 182 166
-0.4178401007027557 -0.1747023407244699 1.4901746575767651 246 242 194
-0.3151775374800498 -0.1842126483841111 1.5690326286956409 255 249 187
-0.3282655994124674 -0.3483711419899203 1.3899983433528800 175 202 209
-0.6204063290636872 0.3069014500371690 1.9747466285244939 155 176 161
-0.6040144193135881 0.4044880079267545 2.0021428234507459 131 162 147
-0.5859200044695160 0.2184964098121876 1.9092542023051384 202 209 238
-0.3475000847235471 -0.3314983469863486 1.3877336345937963 107 127 152
-0.6784955333884779 0.2865385840038175 1.9991871203508036 122 146 133
-0.4221769762735705 0.0773548449160260 1.7630951645581976 150 141 132
-0.4009355983590739 -0.3341067631154028 1.3400819128389192 178 206 218
-0.6631530099548740 0.4855093776251248 2.1454717359173645 94 133 128
-0.3222066685987944 -0.3220099192552242 1.4035025763909401 254 255 250
-0.6289071057757455 0.5329365724714189 2.1344818491133322 176 198 162
-0.3450529883458095 -0.3136900712923371 1.3899561006782994 184 204 203
-0.6545612861706501 0.1367220717981874 1.8478137055954598 247 248 191
-0.7386269971540604 0.5578724655793461 2.1710363731424973 79 109 109
-0.3829491161032664 0.1910914482948911 1.8824503615521022 214 223 196
-0.3354473830794462 0.0225927755448612 1.5286121030696236 182 196 171
-0.3680738146845609 -0.3126798149710475 1.4103767098077995 246 248 234
-0.5503692313062738 0.3745290042863111 1.9629016054576520 199 211 171
-0.3701078574825497 -0.1239052978799898 1.6228503651834032 187 183 154
-0.4497260381033073 0.3906118655218977 1.9715042183305913 105 132 117
-0.5120885700815868 0.3997336263011416 1.9559020970648047 136 159 143
-0.3690503737113441 -0.2841317040245690 1.4285390622442624 216 216 214
-0.7166839407627590 0.1548280796813590 1.8513346507449329 193 202 183
-0.3916277200809904 0.1848831319793098 1.6832047784765019 106 125 129
-0.6682930372893924 0.3662792816423869 2.0600084554539992 100 118 120
-0.5705107839493905 0.0607088949092838 1.7936662709520119 164 183 190
-0.3825144314288716 -0.1159139771134963 1.6298262977560602 169 163 115
-0.5705107839493905 0.0607088949092838 1.7936662709520119 164 183 190
-0.4637109593682587 -0.0840971926113264 1.5461904473327803 249 253 228
-0.3139794875118496 -0.4152597033343196 1.3403803395430438 246 244 255
-0.3549953041072936 -0.4089605419870244 1.3104871573136920 255 254 255
-0.3475948974060781 -0.4062841065830092 1.3321855852591467 133 168 198
-0.2979167928786489 -0.3904035628311627 1.3852813108650701 104 135 179
-0.6782856110994046 0.3680609909703364 2.0702832132040356 118 142 129
-0.4920846335902149 0.2762043093993254 1.8556351604705739 112 139 130
-0.3731448039316165 -0.1025278038335541 1.6660866062520148 240 241 197
-0.3337946120322983 -0.3768064910960530 1.3726024925517104 110 145 175
-0.3997095986657739 -0.2301714445020495 1.4627927823891715 134 126 115
-0.3714433003062116 -0.3652005347956369 1.3634050914392042 179 208 212
-0.7269709280944775 0.1852459803003008 1.8846818673980779 170 182 168
-0.6072472546603846 0.0657146200624188 1.7939746885869357 255 255 253
-0.3747937922792112 -0.2691796249209287 1.4396090585617365 244 242 204
-0.6721991099668635 0.3993818162543881 2.0795941478324598 217 234 189
-0.4141089178364080 0.1203645357385498 1.7754907021288222 215 221 187
-0.5157189285077221 0.4273387160314707 1.9881690697464200 200 225 193
-0.5107199199170079 0.2532393704891112 1.8774146633332849 190 202 178
-0.3965276894919722 -0.2642075713036577 1.4480010483315300 200 186 173
-0.6368440120749861 0.2254567764419218 1.9810824481714808 184 198 173
-0.4147179443761231 -0.1906220525934497 1.4823628010307770 248 233 168
-0.3233020021716876 -0.1998494862059840 1.5635126553720873 247 255 252
-0.4928344688391549 0.1640834832249143 1.7494206414576174 221 228 187
-0.7550703682352313 0.2785603466429141 1.9575927005861014 154 173 171
-0.5869494406228628 0.5012498917723528 2.0547985583821888 103 134 137
-0.4664803116509235 0.2725552603869600 1.8195774345495555 123 146 140
-0.5181768542026537 0.1812993556242589 1.7372086716703787 120 140 131
-0.3520185465045659 -0.0438370328826695 1.6765887610483021 231 241 204
-0.3501602790683561 -0.3028647540465196 1.4176312689888499 167 161 161
-0.5626819695166707 0.4337988011041634 2.0067277503670011 166 188 176
-0.5029948568904267 0.2279442026157027 1.8511085430266443 215 222 180
-0.4447738916841512 0.0295636382445689 1.7321739385137807 227 225 184
-0.4383485930357516 0.0280184203656906 1.7378042304328665 122 133 127
-0.2987449323230364 -0.2462682147635147 1.3339961428713474 96 120 154
-0.4373288156717343 0.0260213075372418 1.7397868740271671 122 133 127
-0.5873079269563105 0.1805168373466119 1.8882868502404770 248 254 252
-0.3610446206580445 -0.0309360206817151 1.6876632087100596 236 243 199
-0.8162518181243847 0.3690762794839713 2.0925014716079580 59 87 127
-0.5064287713861594 0.0629661216880043 1.7050253497354830 233 228 188
-0.5139309858299241 0.1791340447391273 1.7435945921455500 206 217 185
-0.7079545844818854 0.1988173934507981 1.8974605374185884 171 186 167
-0.5062462165513028 0.2101390134301148 1.8720716049903745 236 243 192
-0.5062228397708465 0.2101169795467552 1.8721608773749507 236 243 192
-0.4135360667060058 0.1994539312151317 1.8759183672275754 204 219 196
-0.7357642780766422 0.3050768097484126 1.9736810821548281 177 185 170
-0.7505957968315432 0.4234708730294408 2.0767359643271313 45 86 108
-0.6084966206056174 0.2414369016012883 1.9235232182799809 242 253 249
-0.4117422833676181 -0.2467137328654444 1.4506220438082973 252 226 177
-0.7334291856740990 0.2061583783680866 1.9040493541523418 70 99 139
-0.3566092355944070 -0.1968811530702836 1.5698054786987776 253 243 192
-0.3566092355944070 -0.1968811530702836 1.5698054786987776 253 243 192
-0.5607378245570313 0.2156255359422921 1.7521856613866007 189 201 179
-0.5635385698514613 0.1055649543025061 1.8408914438179087 250 255 254
-0.3210696662394633 -0.2043411609331826 1.5565220642889521 197 203 175
-0.5705415057055948 0.4715868326009242 2.0286118316992745 115 144 140
-0.6756752787510822 0.5350654053942990 2.1783430591110573 194 209 186
-0.7584610338273163 0.5852441101251047 2.1980528350988680 87 111 115
-0.7894595881599110 0.4250827605421056 2.1146478886878546 127 159 158
-0.5499376574083634 0.3856787768495149 1.9711143345065725 121 141 129
-0.6036091442422600 0.2425447805225465 1.9134932979607513 141 146 150
-0.3280920560733841 -0.3979590762405094 1.3618369638557786 254 255 255
-0.5067678660414230 0.4045318901005593 1.9710461814733959 99 131 126
-0.4235849874972923 0.4065139185375566 1.9671532129721823 156 171 140
-0.6280586025225725 0.2964032563408213 1.9522938390706730 166 179 170
-0.4839392287975998 0.3566942991777862 1.9275392811664191 153 174 155
-0.3364413697845289 -0.0310578893060717 1.6837052443394911 255 253 204
-0.6519582661382690 0.3064574803052620 1.9998398436697558 195 211 175
-0.6206673016240130 0.1372339325066846 1.9090744331707172 229 238 193
-0.5934039828391012 0.5135669508902937 2.1101460720857252 165 181 168
-0.5105881455454536 0.6332201789125459 2.1468996757369045 150 173 167
-0.5076838796209604 0.6439501493294409 2.1489423726077059 85 126 122
-0.3610455260335133 -0.3980051318355036 1.3309980820741207 254 255 253
-0.5156343859925941 0.3956854241523342 1.9608825895262585 194 207 177
-0.3845881345480279 0.0582940336029470 1.7323240940847453 195 206 190
-0.3312612229238228 -0.4101887908158064 1.3390095518125684 254 254 252
-0.6537501914132786 0.2348461632505275 1.9795480328744164 191 201 166
-0.3813406137177307 0.4145704899607451 1.9450832325790868 109 139 137
-0.6089358572872602 0.1479557320290283 1.9100092618681992 151 162 132
-0.5690977574093695 0.1445493920205833 1.6440811815060021 209 214 182
-0.4788196929937040 0.1016596372201627 1.7113964496238074 118 131 124
-0.3965719927968331 0.0702775023466867 1.7449712911427067 186 200 175
-0.6965676480725348 0.4930354275598571 2.1310517040817456 151 174 158
-0.3691712192217767 -0.0721708365487258 1.6761248885920621 152 146 122
-0.4357386130675577 0.0899071624907217 1.7612764510472234 152 158 130
-0.3156430020530799 -0.2306518146370646 1.3509367264076666 229 210 167
-0.3558823973243709 -0.2391740147237087 1.4038707328256936 94 123 141
-0.5167350680054100 0.3593523500139356 1.9146622874295076 186 197 180
-0.6130820206776569 0.1433498623868179 1.8471038867338507 253 253 253
-0.5819392482224625 0.3627470145361721 1.9744750930577415 101 124 132
-0.4728481736774067 0.5600505984633352 2.0656996666156076 123 154 146
-0.6590604354818117 0.3144521271115578 2.0092204299849814 223 227 177
-0.4040099685501806 0.1220721300632672 1.7554945656400358 104 118 119
-0.6932413723865193 0.1486328511873149 1.8518170382440975 186 199 179
-0.7274682190128595 0.3186361245200124 1.9805672070315972 100 129 124
-0.5210505003805472 0.4628214516824842 2.1020860751198511 113 130 137
-0.7091374851360464 0.2107130800302175 1.9013404021142442 162 178 151
-0.5211708462395670 0.4633394833811024 2.1021990285752512 113 130 137
-0.5996116852382538 0.0684677983514713 1.7954797470418347 255 255 255
-0.4523986660540693 -0.0128198866848076 1.6773553268957759 155 152 107
-0.5486960633496122 0.0635874522752127 1.5898959147008511 212 223 189
-0.5191151828503753 0.1444085481124595 1.7377530733762458 118 123 127
-0.4398882830810956 0.1030049613982769 1.7765571442404831 230 237 186
-0.4152287333080062 -0.1977502230354815 1.4814950385425063 255 240 170
-0.5278158215251489 0.1517148426887451 1.7384673980132184 220 219 175
-0.3812552803819607 -0.1204633305047627 1.6276201631541303 249 246 179
-0.3855006531055438 0.1645075193173497 1.7642064276069207 206 211 188
-0.7659171289063142 0.6340219017429624 2.2194259786536610 166 191 162
-0.6157823035252907 0.1843398229085643 1.9327302323193771 87 110 104
-0.5182492514223311 0.1870167011257834 1.7511051040171495 213 218 186
-0.3343445413965077 -0.3284051902057669 1.3933598507268750 176 196 195
-0.5845556293202363 0.1524750034531199 1.8785793456212492 179 193 202
-0.3174103578352739 0.0967838396627756 1.4948818141174700 167 190 180
-0.3478914265921996 0.2832419204645954 1.8078115898882607 194 217 189
-0.6526996810531883 0.1168268270867818 1.8314070346872529 236 234 183
-0.4626474891490023 0.3233793878059820 1.8960316340624785 201 214 184
-0.4760132631560280 0.5029562902527884 2.0341293672308747 115 151 141
-0.3930274899195749 0.1609856225750937 1.7668141261268502 97 126 124
-0.5166836738587312 0.4730922907003557 2.0767686478118801 81 119 122
-0.5077104820903311 0.2894785877095051 1.8750783018342381 200 208 184
-0.7227566177407462 0.2605200214993956 1.9480409071343725 186 197 163
-0.6385544701116517 0.2213320050049927 1.9650566544538868 99 123 107
-0.6469030853937375 0.2284687537832392 1.9735767665285626 101 121 112
-0.6305987517460032 0.1507527786943353 1.9188888651073390 230 240 205
-0.6575632880955348 0.1088805100499440 1.8300219426069915 129 140 123
-0.3616020735864314 -0.1290527124887602 1.6256859328987043 230 225 185
-0.4695474018844544 0.3407201287635196 1.9230723686401157 211 221 184
-0.3987376389676630 0.1813783776995016 1.7843983453059011 197 206 175
-0.3616020735864314 -0.1290527124887602 1.6256859328987043 230 225 185
-0.5938087170263994 0.2626567782631839 1.9574743670696355 223 221 170
-0.3198383487005604 -0.1880220315477306 1.5648371885443142 255 255 199
-0.3195688454031920 -0.1880870374417197 1.5646410941436177 255 255 199
-0.4016562670761036 0.3515565504908112 1.9317829045611028 210 220 186
-0.3582846177867168 0.4971875444760698 1.9533749073317230 191 208 174
-0.7246589345829021 0.3086256590708292 1.9712619647049925 150 167 148
-0.5091052389940220 0.1556996080806936 1.7372623633807427 98 110 122
-0.4998612801161260 0.1634349906219507 1.7426701020481856 229 231 182
-0.3763155377850436 0.6460366170425088 2.0585299804539217 179 209 173
-0.5221561472756407 0.5656869280287704 2.1738694394924516 94 122 126
-0.3771667408422349 0.0641207852955431 1.7268644343563129 95 121 122
-0.3364523209478667 0.2455088102404821 1.7768946813648594 193 213 188
-0.5118208337976885 0.3120780687290730 1.9263910004536566 116 136 124
-0.4247677512274393 -0.2521408232355902 1.4675459450582755 89 122 173
-0.6357748559772097 0.2146502754503383 1.9930486641103526 183 198 169
-0.6117737526394718 0.3775331258375429 2.0434941578758883 117 142 138
-0.5874153600534706 0.1478981723692327 1.8502026283565016 255 255 255
-0.3414218309447835 0.1739014575826789 1.7633558300894661 187 203 176
-0.3580219241412657 -0.4056784076510540 1.3157065894890143 152 176 200
-0.3406070857680654 0.2787971805149247 1.7922236659039430 188 207 188
-0.3663446701593878 -0.3934289963062894 1.3302961142637124 248 255 250
-0.3811723797375410 -0.1481784201884826 1.4824311713592115 247 254 212
-0.3846915458782071 -0.2483337895449322 1.4502171895349327 174 151 135
-0.6461048150751921 0.2167696148818308 1.9734857314818772 169 182 165
-0.4075974191271817 -0.3547629480352926 1.3306224029314164 246 255 255
-0.5568805522244563 0.1998187602661896 1.8509063454791557 98 129 123
-0.7681310667047075 0.2921391655488179 1.9487061386806648 65 88 132
-0.5729524908401515 0.1485928895006830 1.6432709959629548 221 227 199
-0.3862635752534546 -0.3688837372182859 1.3472141075107080 235 255 254
-0.3597307761007690 0.2520033429893611 1.7966113393895058 196 220 188
-0.3930064615750820 -0.3315071728314876 1.3465423308976348 99 133 171
-0.3474677374819958 -0.3315175654471409 1.3876762455290408 107 127 152
-0.6015225563086216 0.1509352214646197 1.8899490193416153 220 226 180
-0.5706737151054079 0.4719974683876410 2.0284408596242844 115 144 140
-0.4286164954738016 0.0556658247724254 1.7562867733518044 105 99 77
-0.3716302838138691 -0.3121413463582733 1.3913312520460908 63 128 148
-0.5948041667720291 0.1734649716713701 1.8787592779211086 250 255 255
-0.3420601065568112 -0.2376986843992752 1.5368029678670863 255 255 226
-0.4995699524831669 0.3827521315337296 1.9089351356201556 109 142 151
-0.4979723845992228 0.0587559007842004 1.7098182850770203 244 236 189
-0.4807865367719356 0.0685908158176357 1.7043887105849278 224 216 167
-0.7986426705852794 0.3558402788511303 2.0097036495402438 154 174 165
-0.4427212378674242 0.3250634382147419 1.9438639636822463 123 152 130
-0.3545509351656033 -0.3381367533875357 1.3812467685460503 222 226 209
-0.5967605735158190 0.4489278886008986 2.0473255113393467 200 216 179
-0.6644143081190113 0.1774204405791510 1.9358881906402960 153 171 145
-0.7175253576791369 0.3070163770837521 1.9736958509691329 182 199 189
-0.4193171334649729 -0.1592731739683404 1.4958269451624056 199 173 138
-0.3424579944555521 -0.1820537976341592 1.5696736446419175 217 224 180
-0.4381015808222926 0.6888136360220304 2.1321997660557575 113 146 137
-0.6620286424560901 0.1545164577257035 1.8998512653720232 202 213 181
-0.5156443741233955 0.4932122764610422 2.0335275236546715 107 143 141
-0.7045537844792263 0.1403358079465808 1.8432123879739963 76 97 140
-0.5600221085932214 0.1234215164046796 1.8556730189716291 135 156 161
-0.4030743175159245 -0.1708246245989803 1.4846832832039210 255 255 244
-0.3315214016551844 -0.4154406473223087 1.3293769448202601 150 174 210
-0.3655846407643318 0.1488193181093023 1.7447900991609233 240 244 230
-0.6568238875908088 0.2648058593151696 1.9995608241178848 94 116 113
-0.3529172989426237 -0.3981894193425444 1.3499968304316725 159 191 206
-0.6244773183023014 0.1583417025504179 1.9302627713377492 212 221 174
-0.4586560248548635 0.3241407959439170 1.8873271493998738 208 222 196
-0.6659334346323326 0.1476240765667097 1.8498773647912499 194 203 172
-0.6228332725942879 0.2516464273959631 1.9262254601541993 135 148 131
-0.4053209845997539 0.2375408101086992 1.7983927400636643 203 214 182
-0.7598373411157059 0.4653982658428049 2.0906827931708398 65 91 92
-0.6296180293937064 0.1910138076064135 1.9615879345253679 212 216 183
-0.3050029960056230 -0.2548802342515793 1.3297567123014931 110 136 153
-0.3771726021969750 -0.2882579154609755 1.4230759400566591 251 253 240
-0.5234719394771633 0.2370543191857257 1.9027628949218718 220 223 176
-0.8084685217199493 0.3669706375792927 2.0810060747500678 54 82 132
-0.6222732903725869 0.3581492460529485 2.0154757002179671 123 137 124
-0.4709642878295605 0.3303115605560701 1.8356078336126183 160 174 149
-0.4530212857400481 0.4791800702574221 2.0200695271405613 112 143 138
-0.3988827628431534 -0.3671005021978869 1.3459181446476067 157 173 188
-0.6222732903725869 0.3581492460529485 2.0154757002179671 123 137 124
-0.4632512684996953 0.1277807583564029 1.7884570917502360 227 233 189
-0.4407079939670582 0.0698990272366418 1.7746486445068839 192 201 158
-0.5902613936960130 0.3484095008918688 1.9839677010640990 204 211 193
-0.7044853232560567 0.2359458788833337 1.9235077459305026 106 118 104
-0.5512998030662436 0.1988089944872040 1.8497561024985447 243 232 178
-0.3268089660163827 0.6225372794312128 2.0399182265373343 161 188 183
-0.4504625994678570 0.3043548403576607 1.8704842236992325 129 162 133
-0.3842652338749096 0.1850335401563520 1.7681308515870149 97 113 103
-0.7468923998441598 0.2420819249214797 1.9366711732225399 55 88 139
-0.3342087481087517 0.1441579753806113 1.7343072645191706 177 187 160
-0.3465788826351623 0.0035159140405281 1.7130543083335417 242 244 197
-0.7650705437635712 0.4026368828351404 2.0300086132756454 119 152 145
-0.5353107274061364 0.0640228672663674 1.5436607192650926 108 113 142
-0.3969027806517306 -0.2634732039740011 1.4470585149455064 200 186 173
-0.4437465653450084 0.0954811140873972 1.7805047132187219 196 202 158
-0.5973173432388060 0.2745033748430958 1.9630683103473465 142 144 123
-0.6343006789823669 0.1981114875047560 1.9643624342928852 113 125 105
-0.5585417440228863 0.1023344338610649 1.6217490846519418 245 243 192
-0.4337261782618312 0.6285233488385675 2.0578519403648099 117 146 142
-0.6112672914691555 0.0685849253361690 1.7965305297819367 255 255 255
-0.3827288730789045 -0.2914747230877407 1.4176867601084184 243 249 245
-0.7057542084492501 0.2650982122772323 1.9358172654030141 186 195 168
-0.4979594392413984 0.1485451314124218 1.7414292416527972 217 227 190
-0.5101134858302473 0.2224682648129387 1.8766452392557618 151 164 134
-0.5210640450691352 0.4486588987076987 2.0097104485253854 108 138 140
-0.6420956867046521 0.2063962104195405 1.9716991616663946 133 144 127
-0.6877463354297162 0.2009421051078467 1.9017745685133149 149 165 155
-0.4159618511224962 0.1140673056504973 1.7754399441425461 108 124 114
-0.7527855409096550 0.2643503967828617 1.9531004566300687 147 164 156
-0.6775870794161684 0.2638829403777067 1.9851024261514536 191 200 169
-0.6540687990874956 0.1916880015812516 1.9569292717052698 126 142 113
-0.4417302489553630 0.0214553277959741 1.7312407036256472 235 232 189
-0.4032381723981412 -0.2339394604216644 1.4617640911672469 255 255 228
-0.6130643129947356 0.2521339471987230 1.9260633503960429 165 174 153
-0.4525363046074686 0.4588349949622114 2.0215993443077793 194 209 178
-0.3790017292719156 -0.2192767765570091 1.4519830942398435 253 233 180
-0.6554523014260898 0.2012514817141447 1.9603279672736780 207 212 182
-0.7497246704153944 0.4031926900830434 2.0661074340491057 130 161 156
-0.7371073174377809 0.4936122967718424 2.1505848620386048 80 110 112
-0.6427017264733932 0.3433781878694465 2.0402859043866703 196 211 170
-0.4061020229631393 0.1427415609929487 1.7692911003057039 126 149 133
-0.4048677444932655 -0.2085870101675064 1.4701633647300483 255 238 169
-0.4605012001702362 0.5152215873866109 2.0294435988262838 195 217 181
-0.4566366316144032 0.0427552112212234 1.7244340499384145 141 146 123
-0.5754633148930408 0.4976119008547174 2.0458973662080719 90 126 124
-0.4495522176628575 0.1235671247937246 1.7985972406431661 125 148 128
-0.4207618771648459 0.3122528774147547 1.9416930086696313 212 220 181
-0.5655943569573519 0.4628075175137393 2.0106563854456825 167 196 176
-0.3321310442043686 -0.1966449672799554 1.5668606418344215 237 236 182
-0.4478643221656963 -0.1757105724241790 1.4873859479750495 254 253 255
-0.6753118396713890 0.5352409057509053 2.1784503331023943 194 209 186
-0.5340823198631784 0.3411571682713144 1.9425727258474181 113 146 127
-0.4122100954614840 -0.1679666310920991 1.4925490271987583 255 238 182
-0.5107703926702859 0.4431169549881634 2.0919103807722972 152 181 163
-0.4392522623507056 0.3854230015318629 1.9598927002691839 144 168 144
-0.5415356338014727 0.6973012071448103 2.2360123879700828 112 132 120
-0.6603546450149582 0.6557550693480793 2.2592245029493845 151 187 177
-0.3664834879245985 -0.3969048949696728 1.3225835778479078 165 178 210
-0.5244520561470291 0.4707973747708574 2.1113264710329314 112 160 160
-0.4501997133937908 0.1772214274035713 1.8071224066882949 123 145 132
-0.6513298612191497 0.5434358528445722 2.1725798158396681 85 112 107
-0.3558346207675095 -0.0627233812027903 1.6717010331335473 237 238 198
-0.3936767769707825 1.1692229181257781 2.1735018506641395 81 128 144
-0.7918026244670511 0.7349792912035398 2.2666249609720626 182 188 152
-0.3347652116626627 -0.4253513748321182 1.2965616833201425 254 254 255
-0.3362197589447956 -0.3603679532997680 1.3825585071679265 100 128 165
-0.3226787538880771 -0.3409396447638172 1.3828599063145222 81 114 157
-0.3675950888150920 0.4753949595102786 1.9348293620883517 112 141 139
-0.3996375246298914 -0.1718809833546588 1.4809660164987333 255 255 243
-0.3675950888150920 0.4753949595102786 1.9348293620883517 112 141 139
-0.4816546094411640 0.3027873610969683 1.8476385080956905 119 153 139
-0.6116220914810961 0.3780024256673138 2.0284120544429864 214 222 175
-0.3348040089028499 -0.1861794828787849 1.5662858864649514 247 244 189
-0.5762331624391503 0.3461323768343901 1.9680811359013435 109 128 132
-0.4002339041348255 -0.2914698464648213 1.3702759779776879 183 217 218
-0.6275564219963421 0.3108886074925685 2.0187612674795994 126 147 132
-0.3474448130953433 -0.2918970303918041 1.4176964382942585 98 125 142
-0.4158930486864127 0.2217831661507204 1.8927377365765978 215 228 198
-0.7318767376698537 0.5650296710664805 2.1904850775342588 100 133 138
-0.4592460112931663 0.7131389037794138 2.1631418777754017 179 202 173
-0.5827807461678416 0.3445700601302681 1.9743725066830309 189 196 165
-0.3601480156604800 0.1536180935450616 1.7083105738270072 214 225 195
-0.3680117080649872 -0.2288769682853755 1.4351096968970616 167 161 149
-0.5144179613682668 0.3638905734391801 1.9492494284375002 113 151 140
-0.3486407018562225 0.4839675424821973 1.9679618435883466 191 208 174
-0.5794639963120334 0.3269503593294322 1.9691256274631546 211 208 173
-0.3425681223217764 0.2096826015934067 1.7788562632127600 213 222 195
-0.5928799362821368 0.0704804683958536 1.7941479623774830 195 216 207
-0.5734185492313644 0.2181231152333325 1.9102314357707109 253 255 216
-0.4549750342066092 0.0978938581710115 1.7806356306419682 232 231 187
-0.4140577379041409 -0.1745432673638651 1.4930412158026789 156 154 131
-0.3293115596062492 -0.1814326499457169 1.5689571909431290 94 127 172
-0.3214623419810624 -0.3939811419299197 1.3608921754128545 154 184 208
-0.4499029872765345 -0.1573072326676573 1.4972202847584675 255 255 234
-0.3478984730199239 0.5137935652705499 1.9103800337601071 103 143 143
-0.6018465384396677 0.3594826297107251 1.9946865342358218 120 133 123
-0.4838401374804187 -0.0254067996620406 1.5832362590169549 244 232 190
-0.4074735887451959 -0.1452656010003377 1.5687736434565360 100 109 116
-0.5376340079932225 0.4349232947476752 2.0032312615762096 120 152 149
-0.7463386333047100 0.3552369667169257 1.9971668795150757 105 131 130
-0.4375660153176966 0.4790318288749154 2.0391323952821661 176 201 172
-0.3724197437585477 0.4902420850345917 1.9925829214344826 122 147 141
-0.5276984867079073 0.2412251135028347 1.9009494912718607 231 234 191
-0.7462765360202300 0.3562683382742604 1.9965954529896617 105 131 130
-0.3725983965447096 -0.1302495302121262 1.6235278334063883 255 253 197
-0.5721687720439975 0.0685275337568649 1.7935903284877621 235 254 252
-0.5378396635007592 0.5027346323354649 2.1410592081602542 98 127 125
-0.5839862851520734 0.3737479896941608 1.9839796351984811 124 154 142
-0.4906182030139113 -0.0027565509143590 1.6003285619481040 255 255 241
-0.5783016518648850 0.4977423742066479 2.0955946692262799 155 184 162
-0.3040149735604161 0.0637748438532154 1.4802870828678043 198 216 202
-0.5914774346245786 0.2357915831681480 1.9485963786268334 255 255 255
-0.5250861478007045 0.0567587439157797 1.5456234538877498 255 249 189
-0.3457375777079816 -0.0367177896929773 1.6826444956026343 239 239 201
-0.5637663582557837 0.2518269722067195 1.9405795108751398 246 236 175
-0.3425112012026982 -0.0290783269236340 1.6850771069397878 153 172 170
-0.3341566762434748 -0.2586950614551284 1.3894063054888646 174 196 193
-0.6837318020645764 0.4047035159902505 2.0797435477361588 83 109 132
-0.3425112012026982 -0.0290783269236340 1.6850771069397878 153 172 170
-0.5915639611730574 0.2255338798402052 1.9425292566999453 248 255 255
-0.4540111916188713 0.0283905330733701 1.7122045898653837 252 255 255
-0.5930730850840044 0.5256034595024960 2.1134717437421533 130 145 138
-0.6280284365977123 0.3453829794757068 2.0252901646402464 102 129 122
-0.5844896215026132 0.2350141091225392 1.9396935281076424 195 190 132
-0.5355533284130399 0.4847653007693442 2.1187990219135373 108 139 134
-0.7115609150655877 0.2641323303614038 1.9356008013846553 114 128 115
